# .PCD v0.7 - Point Cloud Data file format
VERSION 0.7
FIELDS x y z intensity
SIZE 4 4 4 4
TYPE F F F F
COUNT 1 1 1 1
WIDTH 1186
HEIGHT 1
VIEWPOINT 0 0 0 1 0 0 0
POINTS 1186
DATA ascii
-16.501575 -0.29692838 -12.129372 4.9646487
-16.352106 -0.22951198 -12.037189 4.4583335
-15.687596 -0.34189168 -12.152782 6.9186988
-15.550858 -0.31020197 -12.198882 7
-2.1042798 -0.21958895 -12.040074 7
-1.7029736 -0.26994401 -12.176183 7
-1.4625074 -0.26479548 -12.176991 6.9566212
-0.99805152 -0.28412238 -12.124656 6.9285712
-0.66675085 -0.27050614 -12.191987 5.2137637
-0.37427211 -0.15455036 -12.031075 7
0.32983899 -0.22812019 -12.007466 7
0.97934145 -0.26268426 -12.186376 6.5654025
1.2903155 -0.27739161 -12.191281 6.6785717
-17.603155 0.18078676 -12.007229 13.5
-17.364971 0.074388251 -12.037351 11.459757
-16.495918 0.15554652 -12.132566 10.990886
-16.266081 0.1379247 -12.030509 9.840477
-0.67346334 0.1669496 -12.176768 10.829859
1.3015879 0.083861768 -12.267449 9
-25.82522 -0.6961922 -11.636787 6
-21.473251 -0.42172146 -11.830057 7
-18.162622 -0.58029872 -11.827454 5.1966386
-16.514473 -0.55199796 -11.921852 3.9948862
-16.201141 -0.6359275 -11.92588 5.3638391
-15.765478 -0.59947175 -11.937304 4.8753967
-15.593487 -0.74157727 -11.975464 6
-1.4181159 -0.62178844 -11.94751 4.8141842
-0.97877079 -0.62095791 -11.935782 4.7743759
-0.68217129 -0.59045297 -11.947724 4.25
-0.36595076 -0.51904035 -11.86836 4.25
0.21921504 -0.565548 -11.867452 0.94999999
0.40504178 -0.49710992 -11.891243 2
0.98053199 -0.61611867 -11.790339 4.0511465
1.3020337 -0.68830353 -11.719043 4.3333335
-25.821508 -0.38784969 -11.637767 7
-21.486156 -0.17945826 -11.774662 7.5
-18.163485 -0.29045454 -11.789909 6.5862341
-16.503464 -0.21533708 -11.930344 6.8828287
-16.206482 -0.28435168 -11.941617 6.7025638
-15.75354 -0.27129126 -11.941147 6.7688842
-15.591289 -0.29300418 -11.882473 7
-6.2485113 -0.21597083 -11.983085 7
-1.4083253 -0.25725803 -11.931814 6.7798591
-0.99636841 -0.29950517 -11.908263 6.7876525
-0.70024019 -0.24336596 -11.929422 6.5552349
0.17412907 -0.20396368 -11.843762 6.0740738
0.6519351 -0.20078228 -11.839701 7
0.98274863 -0.27196398 -11.802174 6.5287642
1.2764797 -0.3134836 -11.775041 6.75
-2.0899186 0.17225006 -11.966864 8.1164999
-1.9973736 0.084300287 -11.995657 8.1265001
-0.68916219 0.18110292 -11.935683 9.7681179
0.41463611 0.18220595 -11.89841 11.723136
-21.527397 -0.52936471 -11.414894 5.75
-20.967426 -0.66858339 -11.596945 4
-20.425589 -0.47195005 -11.510676 5
-18.172863 -0.57251465 -11.419309 5.2101789
0.61084974 -0.54006404 -11.35364 7
0.98457998 -0.6164856 -11.380996 3.5489039
1.3459133 -0.59199858 -11.409329 4.0999999
-25.82015 -0.38809204 -11.475891 7
-21.732294 -0.019564703 -11.317766 8.5
-21.515312 -0.24204873 -11.380249 7.3333335
-18.88587 -0.35599092 -11.36797 7
-18.161596 -0.32154778 -11.38281 6.716639
-17.246899 -0.32215467 -11.505716 7
-16.930483 -0.32144508 -11.511833 7
-16.619965 -0.32089481 -11.525593 7
0.98143184 -0.27370146 -11.365868 6.5785828
1.3135172 -0.26274398 -11.328598 6.6666665
1.3419392 0.13276623 -11.465001 9
-25.833792 -0.63378859 -10.928546 6.3333335
-18.191191 -0.54364312 -11.090818 4.4221087
-17.384657 -0.42845446 -10.860692 1
0.78184819 -0.48364508 -10.943979 6.5
0.97879398 -0.63328028 -10.977797 3.8626981
1.3661137 -0.66257226 -11.032131 3.9285715
-25.825256 -0.38951588 -10.946068 7
-21.780346 -0.056336366 -11.061829 8.3503389
-18.185484 -0.25988451 -11.079528 6.6942382
-17.337475 -0.16905349 -10.906699 6.9690738
-17.092361 -0.23605898 -10.899496 5.3931427
0.78681648 -0.009682551 -10.943015 8.5
0.9905687 -0.26517707 -10.971964 6.6902161
1.3160833 -0.20058912 -11.049744 7.0952377
-17.360962 0.065538384 -10.88203 12.300667
-17.070839 0.086059123 -10.825829 12.386879
0.77168298 -0.86063939 -10.711226 5
-23.61643 -0.59126735 -10.632523 5.8333335
-21.504457 -0.49370894 -10.506246 6.0833335
0.18450101 -0.54542166 -10.461143 0.76666665
0.5083304 -0.52996266 -10.536732 2.375
0.97535461 -0.66584402 -10.616244 3.2164969
1.3837705 -0.69142258 -10.67221 4
-23.629051 -0.32452929 -10.67197 7
-21.802967 -0.077772528 -10.681667 8.2321663
-21.487568 -0.18383878 -10.512613 7.5
-18.099411 -0.3960579 -10.428507 7
0.19889538 -0.17448135 -10.470808 6.1632652
0.43176946 -0.32749212 -10.479384 4
0.99581039 -0.29024911 -10.597473 6.5867815
1.3176916 -0.30052584 -10.584953 6.7333336
-18.639481 -0.89699769 -10.029545 2.5
-21.495579 -0.43831459 -10.269186 6.7714286
-18.634741 -0.64408463 -10.048692 2.3333333
-18.181786 -0.57542109 -10.212684 4.5090199
-17.748262 -0.62479371 -10.106126 4.8222222
-17.541046 -0.59831589 -10.121291 3.6470587
0.1612857 -0.52033031 -10.388316 1
0.99159223 -0.63693863 -10.202559 3.8019094
1.4026487 -0.64206356 -10.265972 4.5
-21.492794 -0.32009372 -10.359305 7
-18.503319 -0.15600625 -10.147554 7.3454542
-18.165409 -0.28304991 -10.199487 6.4299765
-17.746506 -0.26440099 -10.11837 6.625946
-17.503365 -0.20383626 -10.096298 7.0526857
-17.050219 -0.18834782 -10.089268 6.1543021
0.79714882 -0.38734975 -10.109504 6
0.99899453 -0.2671431 -10.187865 6.6858191
1.3204865 -0.29309756 -10.220822 6.8333335
-17.74901 0.17962931 -10.106455 9.4121904
-17.002716 0.10141806 -10.084291 12.723987
0.27114266 0.081584245 -10.377054 10.011335
1.3984685 0.11210904 -10.261797 8.5
-21.458273 -0.48398033 -9.7253294 5.8583336
-20.97534 -0.63542229 -9.6806116 4.2999997
-20.727724 -0.78082401 -9.6992102 3
-20.338253 -0.60416186 -9.6537838 3.9599998
-19.781891 -0.63463682 -9.6755447 3.0833333
-19.533846 -0.67016417 -9.6927376 2.3571429
-19.011875 -0.59954083 -9.7927513 2.6666665
-18.162909 -0.52489966 -9.8308964 5.3863635
-17.770811 -0.68575686 -9.9259768 5.6333332
-17.592903 -0.49866959 -9.9988213 6
0.78536415 -0.65320206 -9.7631292 5
1.002871 -0.64413655 -9.7928848 2.9426067
1.4246738 -0.68415195 -9.8247404 4.5
-21.500484 -0.21040167 -9.72229 7.5
-20.864847 -0.17113256 -9.7018127 7.5
-20.743633 -0.37226421 -9.7018938 6
-20.35207 -0.24004979 -9.67869 6.9285994
-19.813068 -0.20624185 -9.6579781 7.0999999
-19.390171 -0.34489572 -9.6949711 5.5
-18.957932 -0.25743765 -9.7248411 6.5714288
-18.708532 -0.33211511 -9.8602142 7
-18.154026 -0.35459051 -9.811635 6.8792272
-17.803526 -0.28128582 -9.9096079 7
-17.568365 -0.20348173 -9.9783831 7.3333335
-12.796574 -0.39541608 -9.6528902 7
0.78435659 -0.23889709 -9.8010969 6.6333332
0.99870706 -0.27398589 -9.8014708 6.5616646
1.3654007 -0.29282805 -9.7502642 6.8333335
-21.464104 0.18856448 -9.7496862 8.875
-20.739325 0.032838747 -9.7032566 9
-20.326176 0.16716421 -9.6797104 9.5528498
-19.827068 0.19750912 -9.6589193 10.833333
-19.38529 0.054207072 -9.6974888 9.75
-19.016182 0.15971039 -9.7193899 8.9971256
-17.547388 0.19380796 -9.9629536 8.0100002
0.78471231 0.19008511 -9.8284168 8.333334
1.4167259 0.12893598 -9.8703022 8.5
-18.174698 -0.51378602 -9.3766651 6.0051017
-17.220711 -0.45842123 -9.3079844 0
0.36596638 -0.56092942 -9.4546757 0.5
0.59083271 -0.48904386 -9.4129944 4
1.0026392 -0.63814902 -9.3926649 3.4417987
1.4415414 -0.71991867 -9.4464808 4.5
-18.772655 -0.32160395 -9.2681828 7
-18.151182 -0.33335966 -9.3989573 6.5452385
-17.237856 -0.24695003 -9.2290115 5
-17.00267 -0.16909686 -9.2936001 6.6979818
0.15853177 -0.21859328 -9.5388565 5.5714288
0.54224527 -0.18386881 -9.481885 6.2222219
0.99981576 -0.27542013 -9.3902283 6.6561284
1.3775529 -0.29332608 -9.3842936 6.75
-17.024073 0.071982615 -9.3057423 12.200408
0.53891158 0.14518499 -9.5619287 10.155479
1.4359262 0.14906587 -9.4118233 8.5
-18.165953 -0.55937308 -9.0305319 5.7959995
0.75208867 -0.51706564 -9.0477276 5.666667
1.0011283 -0.60966009 -9.0062971 3.1053572
1.4571416 -0.7140128 -9.0995359 4.6666665
-18.151186 -0.3277854 -8.995142 6.5124402
-13.598491 -0.30796275 -8.8473091 7
0.75553548 -0.14669231 -9.1568098 7
1.0040171 -0.26797715 -9.0078554 6.555305
1.3816863 -0.29840446 -9.0062351 6.75
-17.230589 0.16948344 -9.1930933 14
0.58234578 0.14589402 -9.1176481 8.0570002
1.4580069 0.16772592 -8.9813833 8.5
0.32424974 -0.81225908 -8.4954319 7
-18.172058 -0.54172176 -8.5929527 5.3455782
0.12170534 -0.56182176 -8.62852 0.89999998
0.55267054 -0.56224328 -8.5610723 2.4444444
1.0071557 -0.612997 -8.640873 3.2188644
1.4847245 -0.67719042 -8.5934572 5
-18.158466 -0.33955038 -8.5996752 6.2947688
-13.686635 -0.3067328 -8.7150421 7
0.19175653 -0.20755674 -8.569397 5.8571429
0.49236912 -0.19071482 -8.6465549 6.1704545
1.0079582 -0.27453059 -8.5970907 6.5877061
1.3557917 -0.3027629 -8.5952253 6.8333335
-0.010606617 0.081260331 -8.6507244 10
0.63597649 0.14567372 -8.6974525 9.5879993
-18.192278 -0.54323697 -8.2066946 6.1164021
0.72655356 -0.59993446 -8.3537979 5.5
1.0022209 -0.66036105 -8.2223177 4.4277959
1.4996474 -0.70468956 -8.2396908 5
-18.163321 -0.3453638 -8.184268 6.5740247
-17.034683 -0.18483415 -8.0729446 6.2126055
-14.094762 -0.35497707 -8.3213596 7
0.72400796 -0.14715523 -8.3530426 7
1.0045868 -0.26508856 -8.2085829 6.6694903
1.385869 -0.30894718 -8.1801929 6.75
-17.015469 0.10332958 -8.0438004 12.245256
-3.2268686 0.18088041 -8.0719337 8.1754999
-18.183088 -0.55114353 -7.8046241 5.1666665
0.27005237 -0.51857036 -7.662118 1
0.70010215 -0.63189697 -7.7402167 5.5
0.9969058 -0.65242004 -7.8042264 4.4639096
-18.162346 -0.34778449 -7.7773876 6.5313091
-17.229065 -0.18341467 -7.9738607 6.25
-16.867722 -0.2154796 -7.9774384 5.5
-14.761215 -0.3713561 -7.8263397 7
0.19118845 -0.19472007 -7.7241817 5.8428574
0.56354153 -0.22322097 -7.7445998 5.6454544
1.0031281 -0.27604315 -7.7907286 6.5915732
1.2354059 -0.26851997 -7.9361882 7
-16.955484 0.11633281 -7.9667373 12.242165
-16.792458 0.19954723 -7.9277301 13.666667
0.14265031 0.13596228 -7.7544184 10.620489
0.52434236 0.15051818 -7.7104578 10.467174
-19.443535 -0.88113886 -7.4792109 0.5
-21.464993 -0.60427254 -7.4048762 5
-20.860542 -0.61924607 -7.5025501 4.1666665
-20.466034 -0.75177932 -7.4924898 2.7142856
-20.07233 -0.74607277 -7.4899817 2.1818182
-19.679274 -0.64305246 -7.4889326 2.5
-19.44894 -0.66837883 -7.4844027 2.1904762
-19.009962 -0.57840759 -7.3622017 2.5999999
-18.185808 -0.55502129 -7.4416165 5.233439
0.69196904 -0.48448527 -7.3460274 6
1.0020401 -0.64957255 -7.3912745 4.1940475
-21.473598 -0.29910031 -7.4608645 7.0513701
-20.864973 -0.23109461 -7.5021224 7
-20.487865 -0.34446377 -7.4933572 6
-20.071745 -0.37557527 -7.4934874 5.5
-19.681826 -0.3464967 -7.4925308 5.5
-19.446363 -0.33624214 -7.4896622 5.5
-18.955885 -0.27327204 -7.4147415 6.375
-18.161699 -0.34880424 -7.375258 6.6402149
-17.060736 -0.085657679 -7.3406615 8.5835953
0.68018591 -0.14783579 -7.2395649 7
1.0028291 -0.27249536 -7.3975296 6.6207519
1.2339064 -0.27822724 -7.4207821 7
-20.864077 0.15453915 -7.5047302 9.833333
-19.407274 0.18207547 -7.393712 9.7315006
0.68665993 0.18732962 -7.3922482 8
-21.496986 -0.50888169 -7.0053387 6.125
-18.860165 -0.61450505 -7.1284151 0.5
-18.539404 -0.60564077 -6.9599457 2.125
-18.182957 -0.57428807 -6.9412413 4.8875923
-17.761858 -0.61628062 -6.9662871 4.7574577
-17.549265 -0.58012533 -7.0089636 4.6302085
0.68065131 -0.4945046 -7.0622883 6
1.0091013 -0.61473465 -7.0141492 3.3769231
-26.238987 -0.06215252 -6.9871583 8.1350002
-21.493803 -0.38345894 -6.918292 6.75
-18.506794 -0.15212785 -6.9493604 7.2288361
-18.182281 -0.27253273 -6.9385386 6.7217307
-17.767023 -0.27270925 -6.9620523 6.6099744
-17.518841 -0.25491405 -7.0339799 6.6632652
-17.071472 -0.25538546 -7.1446371 5.3163266
-16.77733 -0.045459136 -7.1195383 9
-8.8169098 -0.34114036 -6.9004107 7
-8.7076893 -0.34370887 -7.0493803 7
0.1784703 -0.21333587 -6.8797851 5.5
1.0014182 -0.26866901 -6.9936824 6.5545039
1.2166696 -0.26519451 -6.9890461 7
-17.765617 0.19016522 -6.9765649 9.1156616
-17.540487 0.18989694 -7.0245662 9.4971981
-16.974089 0.10923181 -7.1268926 12.063557
-8.6757612 0.19485088 -6.9835448 8.0081663
0.26846659 0.15655899 -6.9464774 9.3353119
-25.825474 -0.82291389 -6.7476282 5.5
-21.494171 -0.58845925 -6.6629872 4.75
-18.243555 -0.58898705 -6.7839026 4.0277781
-17.841871 -0.41683793 -6.5084114 7
0.2605153 -0.48371539 -6.7608013 1.3333334
0.44885814 -0.54181981 -6.7501922 0.5
1.0197166 -0.64338571 -6.5283008 3.966475
1.5584428 -0.67939651 -6.5048256 5.5
-26.183252 -0.063118979 -6.7576818 8
-25.828949 -0.36800396 -6.7474527 7
-21.49823 -0.28943381 -6.7045188 7.1999998
-18.170233 -0.3103433 -6.7664986 6.6666665
0.19374418 -0.37445974 -6.786974 3
0.4940117 -0.24068081 -6.7532654 5.6999998
1.0204511 -0.2505452 -6.5444212 6.3423963
1.3329563 -0.26842007 -6.5414338 7
0.16965735 0.13467117 -6.7883081 10.546273
0.51210064 0.17409641 -6.7418499 9.8670082
-25.830181 -0.82270777 -6.3629332 5.5
-25.829849 -0.4384397 -6.1196508 7
-18.456882 -0.54233146 -6.070528 3.5
-18.185263 -0.56653887 -6.0819101 4.5707068
-17.951635 -0.61038047 -6.2166176 5.375
-6.4063349 -0.6753335 -6.0593867 6
1.0999579 -0.66243446 -6.2100897 4.7666664
1.2588892 -0.76542169 -6.251554 6
-26.236446 -0.063402966 -6.2632351 8
-25.832094 -0.36817163 -6.3476253 7
-18.408678 -0.33324102 -6.0826616 4.5
-18.179485 -0.2520203 -6.0986986 6.7053003
-17.968563 -0.28205314 -6.2054605 6.8000002
1.1024772 -0.26342118 -6.2317138 6.1555676
1.223735 -0.2349796 -6.1388059 7
-17.981064 0.12540418 -6.1765585 8.0176878
-25.831503 -0.43774951 -5.9884653 7
-21.609644 -0.42332971 -5.765203 7
-21.509796 -0.42067528 -5.7075367 7
-18.17185 -0.5801 -5.8253212 5.3017654
-17.97501 -0.61777306 -5.6435194 5.5
-17.251478 -0.43666884 -5.9296417 1.5
-16.993933 -0.50640839 -5.8266687 0.60000002
1.1417552 -0.6752972 -5.7958837 4.3636365
1.3291572 -0.69039851 -5.7991738 6.25
-18.159737 -0.28597248 -5.8069758 6.5528698
-17.272045 -0.20868243 -5.8622651 5.875
-16.961491 -0.22629736 -5.8610501 5.4821429
0.64769256 -0.16203786 -5.6067753 6
1.1358796 -0.25188655 -5.7823224 6.4338017
1.2803715 -0.25040084 -5.8242903 7
-18.464821 0.15673922 -5.71171 8.0690002
-17.970795 0.18135647 -5.6314054 8.5
-17.276041 0.19868003 -5.8786578 13.374802
-16.990425 0.1671502 -5.8626065 12.616
-25.843252 -0.47434291 -5.3784881 7
-21.503807 -0.41716236 -5.4979792 7
-18.162533 -0.5872649 -5.3442287 5.3728876
-17.976727 -0.61230189 -5.5564852 5.5
-16.471855 -0.60186565 -5.2081919 6.5
-16.153942 -0.42699111 -5.2019634 7
-15.725977 -0.60043085 -5.2194877 6
-5.4662623 -0.67382377 -5.4814663 6
-1.4145041 -0.62649924 -5.2257276 4.4055557
-0.96186364 -0.66296405 -5.2208648 5.2785716
-0.70959914 -0.6205501 -5.2319689 3.7407408
0.32190746 -0.53489888 -5.4533939 0.25
0.57146209 -0.56966847 -5.5130272 2.1666667
1.0262626 -0.65911359 -5.4144511 3.8539307
-18.155918 -0.28233489 -5.3813534 6.6224418
-17.970093 -0.28108352 -5.5248938 6.75
-16.476482 -0.24424906 -5.2116122 7.1999998
-16.204271 -0.33084473 -5.2210469 7
-15.77071 -0.26782265 -5.2270412 7.136591
-1.6859869 -0.1521675 -5.2090101 7
-1.4171646 -0.24109596 -5.2464328 6.6312499
-0.98063248 -0.24230634 -5.2408671 6.7328038
-0.71730727 -0.23011674 -5.2352448 6.1343751
0.37616795 -0.28913945 -5.5122728 4
0.55030257 -0.1415467 -5.5334044 6.3660717
1.0402954 -0.24343108 -5.4125185 6.1926012
1.2756113 -0.29461712 -5.4263496 7
-17.966885 0.13200915 -5.4890471 8.333333
-16.474024 0.1717779 -5.2303052 9.3418331
-0.70237535 0.19218494 -5.2321615 9.40625
-1.4628266 -0.88378602 -5.0248399 5.8011365
-18.155899 -0.60177511 -4.9735985 4.9641142
-17.991774 -0.71507424 -5.1744137 5
-16.48395 -0.61273849 -5.1090493 2.9013333
-16.215961 -0.57113683 -5.1558561 5.2226191
-15.733635 -0.59763765 -5.0941086 5.1394329
-1.7273886 -0.59084517 -4.833117 6
-1.4580045 -0.73121518 -5.0792322 6
-0.99872732 -0.6217072 -5.1706877 6
-0.69433844 -0.61301279 -5.0630803 2.8681681
-0.11127365 -0.57288015 -5.1700234 6
1.0116181 -0.6742382 -5.0076737 3.5676827
-18.471474 -0.30337542 -4.9579725 7
-18.167141 -0.28091407 -5.0049982 6.6282544
-17.99271 -0.33720395 -5.1659765 6.5
-16.492765 -0.2165733 -5.0821443 5.8485341
-16.256588 -0.2584931 -5.1631303 6.2145157
-15.718803 -0.28242043 -5.078054 6.900919
-1.4699516 -0.25721687 -5.0190635 7.0140133
-0.97668231 -0.20457867 -5.170608 7
-0.68933386 -0.23755814 -5.0694141 5.5004687
-0.10440493 -0.20950492 -5.1831169 7
0.50749767 -0.29194671 -5.0220547 7
1.0111337 -0.27304915 -5.0086579 6.6219811
1.291863 -0.29272547 -5.067668 7
-17.995457 0.16353965 -5.1433306 8.5
-16.483253 0.17220072 -5.0545144 11.551803
-16.182825 0.15326975 -5.174264 8.6271124
-0.70259488 0.18362464 -5.0734711 9.9924946
-0.11737788 0.15375413 -5.1588125 8
0.47813335 0.17859901 -4.9598203 8.0378332
-18.15917 -0.60940009 -4.5839734 4.6134148
-17.092995 -0.46508065 -4.5479846 1.6666666
-16.489298 -0.59963644 -4.5527487 3.5836601
-16.264267 -0.62724012 -4.4882431 4.8263154
-15.727923 -0.6124714 -4.5319843 5.214179
-15.45371 -0.55496562 -4.5288715 5.8333335
-15.163612 -0.52384764 -4.5533738 6.6666665
-5.6325526 -0.65824956 -4.5040522 6
-5.3086729 -0.65394902 -4.4770756 6
-5.0573287 -0.41358334 -4.5166464 7
-1.7288189 -0.64401925 -4.5305438 6.1666665
-1.4304113 -0.67583412 -4.5211873 5.3720307
-1.0238837 -0.63296896 -4.4686732 4.7281146
-0.68285024 -0.60773271 -4.5374985 2.9280303
0.47238737 -0.52356946 -4.5807667 0.58333337
1.0084358 -0.69788963 -4.588841 4.5087633
-18.469685 -0.3009271 -4.5923748 7
-18.164135 -0.2944319 -4.5757051 6.5766459
-17.371286 -0.20006181 -4.5826006 6.25
-17.068663 -0.17743175 -4.6295071 6.5555553
-16.488337 -0.22685996 -4.5321174 5.6975651
-16.249571 -0.26992565 -4.4927168 6.6875
-15.728163 -0.29593518 -4.5492806 6.8122792
-15.510592 -0.27757233 -4.5010824 6.5
-15.190002 -0.29342085 -4.5607786 7
-5.6717248 -0.20059259 -4.4988976 7
-5.319943 -0.3079012 -4.5408049 7
-5.1275001 -0.36948562 -4.519381 7
-1.7246027 -0.17417851 -4.5348759 7
-1.4316308 -0.24692182 -4.5409751 6.8617096
-1.013309 -0.23950212 -4.4601841 6.7222223
-0.69641393 -0.23979411 -4.530654 5.4560976
0.37803006 -0.28298962 -4.6533985 6
0.57232451 -0.284785 -4.607439 5.2301588
1.0062255 -0.27603501 -4.6049147 6.5906072
1.2419224 -0.28059372 -4.429143 7
-17.378138 0.038840793 -4.6550646 10.618345
-17.061417 0.17177033 -4.5943985 12.532495
-16.489548 0.18718006 -4.5390577 10.580643
-16.239458 0.17779432 -4.4841743 9.1126318
-15.445949 0.13827866 -4.5313125 8.2777777
-15.137334 0.066218078 -4.5714035 8
-0.69359851 0.18386024 -4.5388656 10.332447
0.21437493 0.16555536 -4.6938248 9.9336224
0.52716011 0.17951387 -4.6725545 10.787782
-1.3271413 -0.88797462 -4.3282123 4.8431373
-18.405273 -0.77117091 -4.207109 3.5
-18.199957 -0.59253079 -4.2092886 4.6806736
-16.47913 -0.59273177 -4.3690815 2.5714285
-16.233467 -0.65136844 -4.3687539 2.3
-15.760506 -0.59873325 -4.3713117 2.4318182
-15.577115 -0.40375906 -4.3825026 7
-1.3493564 -0.63294607 -4.3847709 5.3846154
-0.99954528 -0.69414824 -4.3825555 5.5916667
-0.73442775 -0.66173244 -4.3793106 5.7777777
1.0302694 -0.65158844 -4.2135801 3.5120373
1.2385721 -0.70264953 -4.1211805 6
1.6759701 -0.6148212 -4.3014116 6
-18.452896 -0.2479417 -4.1464977 7
-18.203018 -0.26031041 -4.211215 6.6261792
-16.500378 -0.19951612 -4.3779435 6.25
-16.234924 -0.28311092 -4.3653078 5.6428576
-15.759511 -0.25219879 -4.3625145 6.3846154
-1.3705275 -0.25228378 -4.3548074 6.8555555
-0.98602206 -0.24594325 -4.3557062 6.9761906
-0.71000737 -0.24625282 -4.3580685 7
0.64965868 -0.29502845 -4.2563629 7
1.0347072 -0.25729442 -4.206449 6.1237335
1.2312368 -0.27476129 -4.0516357 7
1.6740954 -0.21921191 -4.2889194 7
-16.539179 0.14896052 -4.3616285 10.480066
-16.176142 0.13227898 -4.3657885 9.5009232
-15.729161 0.19891463 -4.3713741 9.3000002
1.6502502 0.17572509 -4.3140178 8.0442505
-18.411978 -0.60425949 -3.7214985 4.1666665
-18.271532 -0.58628488 -3.7585196 4.7747025
-17.382147 -0.50179231 -3.795234 0.80000001
-17.121311 -0.52265638 -3.6891751 0.625
-6.5812559 -0.63000703 -3.6151657 6
-6.0085287 -0.56986868 -3.6613035 6
-1.3367049 -0.56655884 -3.8578706 6
-1.1585832 -0.55863363 -3.6407251 6
0.37058949 -0.51437181 -3.8464775 1.5833334
0.52861691 -0.47807369 -3.8056114 2
1.1523191 -0.7115649 -3.8174145 4.2321429
-18.451479 -0.27059084 -3.7927363 6.5
-18.28458 -0.30112278 -3.7834752 6.4935479
-17.31694 -0.23411356 -3.7856445 5.5625
-17.119019 -0.27042437 -3.7622306 4.9111114
-2.2576835 -0.14086723 -3.9522214 7
-1.2979071 -0.22698942 -3.8148224 7
-1.1146421 -0.15025343 -3.6333122 7
0.59321123 -0.22557026 -3.8974931 6.5588241
1.1301188 -0.27220333 -3.7947032 6.6637387
1.2467847 -0.25619179 -3.8411846 7
-17.380796 0.17004728 -3.7324703 12.622552
-17.089371 0.083531201 -3.7345338 11.052557
-18.210447 -0.58289415 -3.3444288 4.5591669
-1.3178509 -0.6737318 -3.2757237 1.5
-1.0815446 -0.61580837 -3.2318034 1.9251701
0.27889955 -0.76173127 -3.274313 6
0.52074337 -0.78816926 -3.5589361 6
1.0754422 -0.64328915 -3.3445954 3.8796296
-18.409842 -0.36222106 -3.3986568 7
-18.244114 -0.28859711 -3.3505044 6.424047
-7.2759647 -0.29610807 -3.3886147 7
-6.8892508 -0.27765423 -3.2678461 7
-6.527833 -0.19019488 -3.4821801 7
-6.0542822 -0.14549346 -3.4630747 7
-5.9580383 -0.14552851 -3.5020304 7
-1.2202752 -0.14950503 -3.5986576 7
0.27720857 -0.24239451 -3.2128859 7
0.57708186 -0.27052096 -3.5016541 7
1.0736909 -0.25412008 -3.3512723 6.1287885
1.2774781 -0.25172719 -3.3781419 7
-18.464031 0.14638391 -3.2854047 8.0372505
0.49831536 0.1847107 -3.3996155 8.0272503
-18.169497 -0.5934279 -3.032398 3.4107683
-17.36158 -0.44290933 -2.8695817 2
-17.108088 -0.49571952 -2.8803415 0.83333331
-1.2763543 -0.58163548 -2.9350269 2.5625
-1.0487096 -0.58761221 -3.0687463 1.6354978
0.26902574 -0.52786672 -3.0774302 1.5
0.57144636 -0.62360764 -3.015157 4.0433335
1.0210422 -0.62833792 -3.0539541 3.6852713
-18.168921 -0.25248206 -3.0235064 6.8613138
-17.927332 -0.10116319 -2.8732646 7.7826228
-17.39172 -0.18887137 -2.9242499 6.2967429
-17.153725 -0.2047521 -2.9573052 5.8946528
-1.2654214 -0.23704262 -3.040374 4.5
-1.0523428 -0.30403236 -3.0778883 3.9184258
0.18721676 -0.25904179 -3.1106453 5.0178571
0.57657695 -0.23245889 -2.9750993 6.2606058
1.0120934 -0.25818333 -3.0489738 6.4341431
1.2886028 -0.31300262 -2.8100491 7
-17.389952 0.19467874 -2.8779197 12.757307
-17.069155 0.15620434 -2.8366616 11.870881
0.23971312 0.1883368 -3.0686431 9.8641186
0.5698331 0.17942601 -3.0249765 9.417387
-18.157665 -0.60333627 -2.6180489 4.2422981
-17.755934 -0.71329331 -2.694447 6
0.70013106 -0.59954542 -2.5918252 5.7142859
1.0076249 -0.63266301 -2.6001651 3.59881
-18.144476 -0.25083664 -2.5887485 6.8259315
-17.895842 -0.12688462 -2.6207533 7.3220963
0.61998409 -0.20029169 -2.5788012 6.8333335
1.007181 -0.27685985 -2.5992765 6.560267
1.2433534 -0.28632188 -2.6719742 7
-17.930384 0.15861613 -2.5985727 9.4018059
0.68610877 0.10032028 -2.5818429 8.1410503
-18.462856 -0.56114113 -2.2064495 5.5
-18.157831 -0.61213833 -2.2137942 3.9405267
-17.987928 -0.7459864 -2.3538756 0
0.35500908 -0.73798519 -2.235076 6
0.59913766 -0.60369486 -2.0924907 2.5285716
0.98116016 -0.6211735 -2.1831081 4.0759635
-18.447262 -0.17002296 -2.0697243 7
-18.172913 -0.29115298 -2.2130148 6.3585362
-17.917774 -0.11504694 -2.3583221 7.6246033
-1.9892567 -0.32913667 -2.1936235 7
0.36245745 -0.29488987 -2.161799 7
0.58931023 -0.2723344 -2.1465936 6.3307295
0.99566537 -0.26458481 -2.1990643 6.6067467
-17.927101 0.12837657 -2.3544288 10.921341
-1.9998693 0.13923208 -2.1085615 8.0030003
-18.441845 -0.68013823 -1.9775617 5
-18.154669 -0.5970819 -1.8274238 4.5879197
-17.255213 -0.51614571 -1.6910948 0.66666669
-16.975298 -0.49822751 -1.7430401 0.5
-6.8755956 -0.64087087 -1.789094 6
0.2587086 -0.70109957 -1.7346931 3
0.56437016 -0.54091012 -1.9170779 3.4166667
0.97311872 -0.62930083 -1.8247817 4.5752382
-18.445311 -0.29720515 -1.9870026 6.5
-18.169634 -0.29821697 -1.7922113 6.3481827
-17.245485 -0.19116145 -1.7110766 6.3252068
-17.013315 -0.23466092 -1.7309593 5.4285717
-6.849586 -0.1995834 -1.6915293 7
0.62696087 -0.2343065 -1.8242868 6.5769229
0.99087071 -0.26126254 -1.8398634 6.5963755
-17.267948 0.18883745 -1.6453143 12.819587
-17.037064 0.13684781 -1.6958376 11.879386
0.16216514 0.12815501 -1.6840909 8.8397503
0.69223434 0.089024775 -1.9718781 8.2941246
-18.41013 -0.65792394 -1.4959528 5
-18.179136 -0.60002369 -1.4271114 4.449667
0.29608649 -0.46086332 -1.4493833 1.5
0.51323158 -0.6304056 -1.535429 3.8888891
1.0039479 -0.63256472 -1.4008399 4.3584976
-18.42231 -0.26589718 -1.5375745 6.5999999
-18.180405 -0.29896194 -1.3975891 6.4851251
0.27230683 -0.24457465 -1.4723406 4.390625
0.63019657 -0.18225206 -1.3853917 7
1.0080773 -0.26618767 -1.4170777 6.5935941
-18.427916 0.19933113 -1.492605 8.5
0.28769794 0.15918429 -1.4714482 9.5649691
-18.400499 -0.86919022 -0.85281682 4
1.2117829 -0.84879148 -0.9590888 6
-18.418171 -0.64241403 -1.0648844 5
-18.173666 -0.59406412 -1.0007356 3.7681818
-16.878738 -0.48416248 -0.92518908 0.66666669
-16.778393 -0.54416317 -0.83509517 0
0.43596902 -0.7063427 -1.0892372 6
1.0028324 -0.59637749 -0.99174404 4.9042773
-18.404037 -0.2848253 -1.0198443 6.5
-18.19339 -0.31440073 -0.98952508 6.32407
-16.949911 -0.19438434 -0.92645562 6.0297012
-16.756142 -0.33820429 -0.90835112 3.5
0.66690254 -0.23325276 -1.0356646 7
1.0047364 -0.27190596 -1.0099244 6.5408373
1.2059994 -0.2359135 -1.0299025 7
-16.93325 0.18407676 -0.89141029 12.596338
-16.707146 0.10145685 -0.86003453 11
-18.18084 -0.63463229 -0.59851164 4.5306025
-8.9250259 -0.50620431 -0.62078714 6
1.0081323 -0.60726815 -0.57906729 5.0202875
-18.198788 -0.30650815 -0.60114187 6.5851088
-8.9257193 -0.15751678 -0.62358284 7
1.0050756 -0.24627751 -0.60706037 6.678441
-8.952055 0.19280848 -0.68821383 8
-5.7575836 0.17850795 -0.53098297 8.0992498
0.22675508 0.029742159 -0.46569812 8.1759996
0.66392261 0.11787311 -0.55878162 8.1130009
-18.170736 -0.61457187 -0.20275921 4.6410131
1.0122927 -0.59504312 -0.16903742 4.68327
-18.19655 -0.29577151 -0.18287088 6.3404064
-0.16214287 -0.20714967 -0.30927336 3.4000003
0.13672291 -0.18612158 -0.33809194 3.925926
0.6800499 -0.17978507 -0.1257906 7
1.0025355 -0.26257113 -0.20519848 6.6575766
-0.11740782 0.16681917 -0.32064375 10.635253
-18.165836 -0.62210345 0.19537765 4.3040481
-16.495758 -0.41007751 0.23483026 2.5
-16.348198 -0.51778567 0.1879203 0.5
-8.6870575 -0.59600693 0.15280414 6
1.0109659 -0.61144286 0.23746389 4.6942081
-18.169195 -0.25265807 0.23101828 6.7820482
-17.926598 -0.13058306 0.2826246 7.2661347
-16.541479 -0.19198273 0.22122356 6.2587204
-16.312777 -0.14234103 0.20335424 7.1016197
-8.6951342 -0.22785048 0.19190963 7
0.69149113 -0.19795378 0.0542202 7
1.0088034 -0.2638635 0.20834498 6.6110535
-17.946716 0.16402714 0.29432285 9.9706459
-16.491081 0.18578717 0.24568474 12.590324
-16.293547 0.19622807 0.23249269 12.583152
-8.7058086 0.1771376 0.2038815 8
-18.200169 -0.6106419 0.59172165 4.152586
-17.97332 -0.55839771 0.55013657 6
-16.20002 -0.51983982 0.54516792 0.5
-0.23433605 -0.46930155 0.77114749 0
0.10163216 -0.44776589 0.48087186 0
1.0094626 -0.62530589 0.63983142 4.5976191
-18.443699 -0.306373 0.50055218 7
-18.16437 -0.25284818 0.61459345 6.6115265
-17.913834 -0.16301763 0.65282047 7.0219111
-16.414272 -0.00015684962 0.52539426 9.8254433
-16.245901 -0.19298421 0.55490363 6.1481485
-0.22845258 -0.14053869 0.65447289 5.0833335
0.07622502 -0.21454163 0.60122234 4.1296296
0.69474077 -0.19219095 0.57535744 7
1.0076821 -0.24126004 0.60278332 6.632318
-17.947704 0.1679616 0.631356 9.934185
-5.1529293 0.19046086 0.44565296 8.0979996
-0.22113004 0.16602319 0.61793727 10.517303
0.080877259 0.18757737 0.58387786 10.86721
-18.202127 -0.60629588 0.97818148 3.92612
-17.97282 -0.65887177 0.91739798 5.625
-15.602846 -0.5534569 0.97551531 0
-15.575192 -0.42777121 0.99174356 2.125
-8.1371717 -0.66180158 1.1352205 6
-0.1895937 -0.45893136 0.80407012 0
1.0110222 -0.61774361 1.0072482 4.5688887
-18.433437 -0.30610734 1.0035799 7
-18.203562 -0.26619238 0.97282034 6.6734824
-17.92638 -0.20733203 0.87062585 6.75
-15.878114 -0.0034667179 0.91637009 9.4530001
-15.525968 -0.16717821 1.0242009 6.4102569
-8.1280861 -0.24797145 1.1431475 7
-0.22398654 -0.22077855 0.83684313 4.0113635
1.0049399 -0.24247254 1.0003361 6.6463027
-17.93083 0.11493812 0.87804353 8.7063007
-15.702421 0.15323964 1.059695 11.675108
-15.497089 0.11845008 1.0149847 10.953219
-8.1556616 0.16356519 1.1894488 8.0085001
-0.24771707 0.17629078 0.88334197 10.749995
0.017549731 0.016802274 0.93093741 8.1430006
-18.417168 -0.88325793 1.3597795 6
-18.177235 -0.62640244 1.4111665 4.4609408
-17.977406 -0.67008889 1.3624077 5.5
-15.074945 -0.49952915 1.5252366 0.70833331
-8.1520061 -0.77216518 1.4525509 6
-0.166627 -0.49676421 1.4004072 0.38888893
0.082318306 -0.49980563 1.3025182 0.83333337
1.005334 -0.59802967 1.3864713 4.8158875
-18.417856 -0.2706753 1.3946072 7
-18.20034 -0.27773321 1.4096622 6.7105532
-17.958633 -0.23583575 1.4402504 7
-15.045708 -0.22636491 1.4496865 5.125
-8.1064587 -0.30760571 1.5355406 7
-3.7048836 -0.26142412 1.5525198 7
-0.17547449 -0.24808709 1.3613491 4.0799999
0.087169111 -0.18442391 1.3355287 5.0535717
1.0052738 -0.25180244 1.3994476 6.458127
-17.992138 0.081189923 1.3090973 8
-15.272785 0.025903426 1.384038 9.5655003
-14.996975 0.18174331 1.4684318 11.725643
-8.1267939 0.15112111 1.5101242 8
-0.18875776 0.19586873 1.314049 10.25958
0.13689479 0.18705854 1.3349884 10.213672
0.77439785 0.029125422 1.3026409 8.1219997
-18.186958 -0.62539625 1.8095843 4.6397424
-17.989864 -0.5760144 1.7190111 5.75
-8.1274662 -0.70936453 1.7902632 6
-5.8837185 -0.49627441 1.9048824 5
-2.9509685 -0.78634715 1.8789048 4
0.99802417 -0.60726869 1.7978777 4.757555
-18.192724 -0.2825211 1.8129908 6.6011682
-17.922222 -0.24273439 1.8107741 7
-14.646033 -0.013170574 1.9509263 9.0453758
-8.0758886 -0.2675136 1.906415 7
-1.4881554 -0.2886003 1.9916425 7
1.0011172 -0.25390199 1.7994889 6.4471493
-18.194525 0.18521355 1.798597 8.4986992
-15.271921 0.11548574 1.7061845 10.906408
-14.198854 0.070549406 1.9635925 10
-8.1089191 0.16700999 1.9007807 8
0.6472522 0.16407786 1.7919331 8.1029997
0.99857837 0.18711548 1.8027325 8.7882729
-18.197603 -0.64958739 2.2120538 4.3815103
-17.934433 -0.65124309 2.2754536 6.5
-16.451801 -0.53875887 2.2772992 3.5
-16.210712 -0.55497032 2.303174 4.9033389
-15.775921 -0.60805357 2.307977 4.4229326
-14.542566 -0.53298497 2.19276 0.5
-13.768355 -0.52352208 2.3253615 0.5
-8.8106794 -0.47764921 2.3889484 6
-8.6153212 -0.63939601 2.3268707 5.6999998
-8.2470894 -0.53500938 2.2348187 5.9444447
-5.696631 -0.58168036 2.0573006 4.5
-1.6764855 -0.59360647 2.3685699 4.5
-1.4336706 -0.60332018 2.3078856 4.7857141
-1.0277997 -0.56038451 2.307699 4.5327725
-0.7188195 -0.58614701 2.3033342 3.6139784
-0.17302415 -0.47526857 2.2494378 1.5
0.071418539 -0.53692722 2.2086823 0.85416669
0.70828915 -0.68072504 2.214911 6
0.9960857 -0.61357194 2.1972997 4.3179011
-18.194315 -0.28092089 2.2191377 6.7586303
-17.924204 -0.25152379 2.1399698 7
-16.464886 -0.23573035 2.2629931 5.9649124
-16.205456 -0.2586123 2.2699258 6.3832393
-15.766285 -0.25640053 2.2964206 6.2792974
-14.471718 -0.28957662 2.1702209 4.409091
-14.242235 -0.13587897 2.1043801 6.9705572
-13.680513 -0.22496831 2.3758831 5.5113635
-8.8220282 -0.21265538 2.3802431 7
-8.6224327 -0.24774082 2.3351951 7
-8.2512865 -0.18331815 2.2070768 7
-5.7678165 -0.19502728 2.0187321 6.4285712
-4.4399714 -0.1686936 2.0733309 6.5
-1.6793631 -0.1957342 2.3655367 6.5
-1.4100431 -0.25572604 2.2921536 6.7269645
-0.97703278 -0.25832507 2.2850895 6.606884
-0.72074527 -0.20364344 2.2982864 5.7076921
-0.18139887 -0.23067743 2.2214687 5.2037034
0.17065486 -0.22605538 2.2393763 6.0109892
0.71219063 -0.30311784 2.2290101 7
1.0004495 -0.27506986 2.2050359 6.4038568
-14.491535 0.1856551 2.2287061 11.869113
-14.334399 0.19392797 2.0581789 11.945646
-13.723775 0.096759729 2.3834972 10.609979
-13.59219 0.19612458 2.3569632 12
-8.5196943 0.16831218 2.320286 8.2857141
-8.2439432 0.15885711 2.1703548 8
-1.6760948 0.19971365 2.3893633 8.5
-0.71316761 0.1959008 2.3056247 9.7365961
0.70552826 0.074087024 2.1577024 8
0.99734271 0.19821084 2.1999695 8.8577557
-18.182968 -0.65910417 2.5777333 4.5957141
-17.943527 -0.64876151 2.5719681 6.5
-16.443817 -0.6819908 2.6071322 3
-16.283035 -0.59128147 2.5478923 4.6666665
-15.745503 -0.62754291 2.6184955 4.7617397
-15.525065 -0.51800227 2.6355505 7
-13.788525 -0.52737379 2.61955 1
-13.019325 -0.52104938 2.6962116 0.5
-8.8217106 -0.60997844 2.5742319 4.4274077
-8.6445541 -0.59105182 2.5617673 5.3753419
-8.3571453 -0.58219367 2.5741243 5.8333335
-6.3440647 -0.79144961 2.7133274 6
-3.2282534 -0.64656657 2.4948273 6
-1.6767902 -0.65197879 2.6930401 4.5
-1.4577264 -0.60475171 2.6004345 5.8392859
-1.1658058 -0.4276799 2.4287844 7
-0.70044553 -0.60323006 2.5775428 2.57442
-0.16498831 -0.56402469 2.7434027 0.75
0.72089863 -0.67032838 2.5056906 6
0.99577016 -0.60701472 2.5954304 4.4177876
-18.187963 -0.28276721 2.609642 6.7239127
-17.906935 -0.24476746 2.5465515 7
-16.460926 -0.2188281 2.6982381 6.6666665
-16.323215 -0.32769471 2.4262731 6
-15.725975 -0.268125 2.6096539 6.4057961
-15.477343 -0.28789607 2.4878469 6.5
-13.81367 -0.21294956 2.5676277 5.7592597
-12.996784 -0.2400405 2.6967487 5
-8.8240957 -0.23575908 2.5674434 6.533895
-8.6342316 -0.26099098 2.5316932 6.8222222
-8.3593254 -0.21029142 2.5550826 7
-3.2480812 -0.24817136 2.6310005 7
-3.0800877 -0.24858169 2.5789366 7
-1.6821334 -0.19718811 2.6824448 6.75
-1.4621059 -0.27050883 2.6065643 6.9220338
-1.0015411 -0.33659708 2.4398012 7
-0.70309812 -0.1971426 2.5963311 4.7146249
-0.22389175 -0.15959147 2.7463551 5.625
0.090478048 -0.1481453 2.7866089 5.75
0.72164631 -0.29905906 2.5173545 7
1.0010548 -0.25640857 2.5953958 6.4538174
-18.191242 0.16054836 2.5935299 8.6505423
-16.447161 0.07265576 2.6297488 9.166667
-16.320293 0.064812563 2.4357967 9
-13.246989 0.018959321 2.6689725 9.5731001
-12.967702 0.14610013 2.687881 11.180669
-8.8250523 0.16400819 2.5713098 8.6513176
-6.3135433 0.14052816 2.5483389 8.1014996
-3.2502866 0.14311229 2.6353388 8
-3.0887492 0.14277609 2.5741787 8.0621672
-1.6684984 0.18657194 2.6949697 8.5
-0.70678848 0.19510464 2.5895314 10.271729
-0.1794861 0.16874747 2.6604073 9.7121458
0.72515965 0.071438372 2.4961262 8
0.99065787 0.19161068 2.5974197 8.9841156
-18.169361 -0.63879859 3.0418313 4.8958879
-17.931608 -0.76618004 2.9338789 6
-16.514868 -0.56554556 3.0326397 6.1190476
-16.262262 -0.70571947 2.9898481 4.5654759
-15.747351 -0.64633679 3.0123346 3.9384618
-15.517303 -0.63856739 2.9536893 5.3571429
-13.135291 -0.53055203 2.950716 0.5
-12.719123 -0.50872648 2.9609129 0.73750001
-12.079796 -0.5138858 3.1805458 0.5
-11.85394 -0.54314238 3.1359212 0.33333334
-11.098436 -0.7296989 2.9359856 5
-8.862545 -0.6205737 2.9172626 4.2711115
-8.6087618 -0.59899998 2.9173205 4.5061851
-8.352582 -0.59339166 2.9137244 4.4679484
-5.9649892 -0.63721573 3.0962083 4.5
-3.5492268 -0.6469661 3.1653798 5
-2.9001067 -0.67168355 3.1045551 6
-1.6688582 -0.54350054 2.9590435 5.75
-1.4464853 -0.59621382 2.9808509 3.8455715
-0.98275739 -0.59880054 2.9920838 4.6262121
-0.71975452 -0.56633586 2.9703636 3.2595201
0.11044763 -0.53471041 3.0382223 1.2592593
0.72978508 -0.55060953 3.0601649 6.5
1.0005658 -0.59003985 2.9969287 4.688416
-18.179319 -0.27895856 3.0157883 6.7951102
-17.928827 -0.24357429 3.0046961 7
-16.471506 -0.22999592 3.0182407 6.8194447
-16.270405 -0.25685069 2.9806452 6.7777781
-15.732765 -0.25354764 3.0038698 6.2556934
-15.504803 -0.21732225 2.9558218 6.9166665
-13.14344 -0.2235598 2.945914 5.3076925
-12.676056 -0.21256794 2.9887619 5.5324073
-12.055168 -0.20115021 3.1257713 5.5
-11.913909 -0.21600398 3.1101959 5.4000001
-8.8701258 -0.239438 2.913424 6.5071964
-8.61059 -0.24741045 2.9026723 6.5600338
-8.3568335 -0.18760842 2.9128146 6.5645161
-5.9558673 -0.20305146 3.1062968 6.5
-3.4639142 -0.26766261 3.1194265 6.6666665
-2.8544116 -0.28531194 3.0857515 7
-2.7923765 -0.28595236 3.030015 7
-1.6670327 -0.18171728 2.9221947 6.5
-1.4671055 -0.24376741 2.9782488 6.4131942
-0.9918744 -0.23719814 3.0033116 6.1978326
-0.71865898 -0.20210823 2.9833403 5.231709
-0.16595061 -0.21808307 3.0274227 5.1666665
0.099556319 -0.24554688 3.096385 4.7152777
0.74379563 -0.268978 3.0073707 7
0.99599206 -0.24056372 3.0024514 6.3989286
-18.179686 0.16348091 2.9850883 8.5960913
-16.50576 0.18349046 3.0074511 8.646203
-16.236071 0.1652019 2.9855833 8.9044037
-13.301154 0.024435185 2.8214321 9.6318073
-13.045716 0.12915275 2.9336822 11.05385
-12.664751 0.13878153 2.9635561 11.087003
-12.137419 0.0066214576 3.0702689 9.1660004
-11.90835 0.13952534 3.0969446 10.931862
-8.8725805 0.17020078 2.9132314 8.7576456
-8.619483 0.17708768 2.9123003 8.6250162
-3.3944607 0.1822228 3.1080613 8.296875
-2.8719945 0.10065061 3.1072478 8
-2.7699981 0.099675015 3.0746412 8.0924997
-1.6768513 0.09343107 2.9462037 8.1999998
-0.9762525 0.16082859 2.9948971 8.8827753
-0.72158176 0.17961855 2.9874239 10.069358
0.11620111 0.18509708 3.035296 9.8417416
0.72918999 0.080272809 3.0072269 8
-18.174217 -0.65074134 3.3939214 4.9955444
-17.950701 -0.76647329 3.3761051 6
-15.890279 -0.71307093 3.3922553 6
-12.039898 -0.51334029 3.2792091 0.83333337
-11.69788 -0.52627981 3.377238 0.90000004
-11.053065 -0.52075952 3.5797153 1.25
-8.9285145 -0.58380038 3.249975 6
-6.224916 -0.5658384 3.4997041 5.090909
-5.9319382 -0.75785685 3.5417655 4.7777781
-3.7840788 -0.67773461 3.5589552 4.4499998
-3.3125086 -0.63673991 3.4996808 3.0642858
-3.1302094 -0.50253481 3.3682318 5
0.75511199 -0.61875337 3.3053296 6
1.0097234 -0.61191159 3.360399 4.0043859
-18.181221 -0.29957214 3.4085486 6.7052827
-17.94235 -0.23869728 3.3887796 7
-12.08029 -0.23056793 3.3309965 5.1951923
-11.753573 -0.23647332 3.4027195 5.3835597
-11.551208 -0.27446479 3.2559524 4.75
-11.059475 -0.24735415 3.5764811 5.1666665
-8.9482832 -0.25635418 3.2461135 7
-6.2499647 -0.18653996 3.5124512 6.75
-3.7947793 -0.26861286 3.5680761 6.5
-3.3421667 -0.22366241 3.5093994 6.2894735
-1.6074562 -0.33451349 3.4479849 7
-1.580439 -0.33408594 3.3795393 7
0.73261034 -0.30058169 3.3491788 7
1.0004225 -0.21571222 3.3585074 6.0058823
-18.178942 0.14965825 3.4095552 8.4542456
-12.809303 0.13371553 3.2477822 11.055445
-11.305622 0.16491841 3.4626777 11.50777
-10.981915 0.11228554 3.5498512 10.43417
-6.2500076 0.17588431 3.4959679 8.3814993
-3.7795534 0.11667129 3.5701404 8.4499998
-3.3717194 0.19177181 3.501003 8.7239742
-0.11585861 0.028351035 3.2002432 8.0004997
0.055090539 0.027318578 3.2115724 8.1783752
0.7559756 0.070287637 3.3160019 8
-18.183508 -0.65637428 3.8243172 5.0912285
-17.965229 -0.70832121 3.7406967 5.9000001
-11.146063 -0.54373813 3.7175851 1.0833333
-6.06352 -0.61381513 3.7828138 4.6915393
-5.9202967 -0.60260296 3.7890019 5.3511395
-4.4069543 -0.45158386 3.91447 4
-3.647496 -0.58708894 3.7961016 4.7021275
-3.4974194 -0.61484301 3.7766395 4.8785024
-3.1716192 -0.66396034 3.6338344 3
-0.13515292 -0.49726939 3.7594402 2.5
0.13493451 -0.49792755 3.7386956 2.25
0.71991825 -0.55481684 3.8152611 6.5
0.99738109 -0.60546851 3.797431 4.3101077
-18.186357 -0.28470773 3.8122857 6.7524385
-17.9604 -0.26863292 3.7457695 6.875
-11.205679 -0.19568178 3.7780519 6
-11.157181 -0.32530004 3.7178659 4.1380954
-6.0584273 -0.24063237 3.7697365 6.5374999
-5.9127769 -0.23986803 3.7877584 6.7926373
-3.6499431 -0.22744933 3.8035703 6.6111112
-3.4956973 -0.24071062 3.7646453 6.6311402
-3.0590839 -0.1909076 3.7429383 6.5
-2.4023395 -0.28514111 3.8839512 7
-1.631588 -0.33676356 3.6549165 7
-0.17395017 -0.22268099 3.7335105 5.3333335
0.12619054 -0.21006489 3.7247748 5.3666668
0.72080761 -0.33650786 3.7480571 7
0.99737012 -0.21894751 3.8164647 6.2373948
-18.18487 0.18548392 3.8158834 8.3636971
-11.23585 0.15637222 3.8168678 11.014102
-11.136408 0.073474005 3.616245 9.8999996
-6.0606685 0.18257575 3.7943425 8.4110432
-3.5004838 0.19456035 3.7726369 8.3332148
-0.22661254 0.18069817 3.8107953 9.5558157
0.72120702 0.069923602 3.7286127 8
-18.179792 -0.66587454 4.2149706 5.0104761
-17.969339 -0.67610776 4.2302675 6.25
-14.48102 -0.61593103 4.3774829 2.9761903
-14.163223 -0.71689594 4.3599815 3.2
-13.775244 -0.64403081 4.3422899 2.5088816
-13.43036 -0.58882207 4.3310556 3.6944447
-13.007131 -0.63033026 4.334909 3.0176234
-12.664695 -0.5023914 4.3282232 3.4888887
-12.381118 -0.41260231 4.2413416 6
-10.643811 -0.48670843 4.3010173 1.6375
-6.0279646 -0.45129409 4.0007572 7
-3.8206961 -0.60497487 4.308207 4.2222223
-2.681103 -0.6257264 4.0986776 6
-1.453874 -0.72296864 4.2906704 6
0.12281116 -0.57157248 4.2042761 1.7955555
0.75426871 -0.54419744 4.0980105 6.6666665
0.99399751 -0.61542857 4.1726022 4.3018079
11.724691 -0.48201174 4.1033497 7
-18.182318 -0.27002341 4.2122936 6.7711711
-17.976654 -0.23334284 4.1861572 7
-14.450414 -0.24045244 4.3677697 6.3809519
-14.287383 -0.18280244 4.3818154 7
-13.357328 -0.27075404 4.3614616 5.7577825
-12.995354 -0.17647158 4.3348532 6.6729927
-12.599566 -0.23386735 4.341197 6.2365069
-12.217716 -0.2038983 4.3290639 6.2985616
-11.907479 -0.061069284 4.3176999 7.7423539
-10.867296 -0.10831518 4.3965349 7
-10.554578 -0.14023815 4.2629666 6.5963569
-6.045002 -0.36368865 4.0220881 7
-4.404417 -0.31254387 4.025526 5
-3.7710586 -0.2411515 4.2961569 6.4230771
-3.250001 -0.051110264 4.3588018 7
-2.5431938 -0.24701874 4.1497064 7
-1.4567661 -0.30736846 4.2265043 7
-0.14578317 -0.26068714 4.2057438 5
0.13658848 -0.18346488 4.1348867 5.8000002
0.73552686 -0.33131659 4.0840101 7
0.9973191 -0.24566032 4.1833086 6.4082384
-18.187233 0.18679713 4.1942406 8.3201227
-14.222304 0.091021404 4.376646 8.0915003
-13.614823 0.18068674 4.3355942 9.1107502
-12.552314 0.12604327 4.3314538 9.4868126
-11.759624 0.17439757 4.340003 9.4895239
-10.612103 0.19920972 4.2101126 11.65856
-4.0018291 0.15083204 4.1356726 9.0340004
-2.6003726 0.1290001 4.112463 8
-1.4649835 0.11115776 4.2096696 8.0236111
0.18598279 0.1735819 4.1840539 9.5337811
0.73863399 0.16320542 4.0551977 8.25
0.99262947 0.19258228 4.2038369 8.8336592
-5.5648289 -0.88990384 4.6214957 3.4166667
-18.18329 -0.64722538 4.6379299 5.0235257
-17.969147 -0.69357932 4.6922398 6
-14.476998 -0.63859844 4.4452343 2.8416667
-14.249845 -0.72593194 4.4586945 3.8599999
-13.701229 -0.61388564 4.5222802 4.5153847
-13.451668 -0.58216763 4.5309134 5.2533336
-13.017425 -0.54928374 4.4748316 6.1538463
-12.668848 -0.45115846 4.4324617 6.5
-12.388416 -0.40323272 4.543983 6
-10.798019 -0.58422542 4.4245057 0.5
-5.7121487 -0.57819986 4.6571159 5.1620688
-5.560339 -0.56987721 4.6180072 4.6666665
-3.824621 -0.57872939 4.7069492 3.4977272
-0.073813282 -0.5789814 4.5788736 1.7142857
0.72980976 -0.46206239 4.5883665 7
1.0124552 -0.58839768 4.6700525 3.6928771
-18.180187 -0.2472152 4.6298494 6.8939605
-17.969149 -0.23049307 4.5544386 7
-14.469812 -0.25313637 4.4400897 6.0565314
-14.379459 -0.30847967 4.4548945 7
-13.676144 -0.36531091 4.5080643 6.5
-13.413836 -0.22401331 4.4620061 6.8611078
-12.944365 -0.094763808 4.4960723 7.6050477
-12.627175 -0.16217083 4.4990211 7.2513752
-12.194156 -0.23352951 4.5891004 6.1388888
-11.884523 -0.059301384 4.5596652 7.8602147
-10.865324 -0.18386236 4.5061789 6
-5.7263703 -0.21748266 4.6508546 6.7518172
-5.5767183 -0.20673123 4.6342301 6.5454545
-3.8100841 -0.19831938 4.7253695 6.2020197
-0.11455044 -0.26967204 4.6083784 4.9499998
0.060800094 -0.21710873 4.4283786 5.4047623
0.72276366 -0.37436366 4.5602007 7
1.0034906 -0.21580873 4.6758556 6.2102451
-18.197079 0.19721472 4.6326127 8.6056767
-14.472301 0.051647436 4.4984636 8.6009073
-14.242019 0.18511483 4.4866276 9.5646973
-13.42615 0.19022414 4.4478822 9.2435503
-12.547243 0.16372257 4.5071154 8.880434
-11.707791 0.15395121 4.5258727 9.6068897
-5.7218966 0.17684226 4.6565514 8.3217802
-5.5569696 0.16271792 4.6259546 8.4750767
-3.8270092 0.18778561 4.6931534 8.8571281
-0.22212295 0.13197273 4.7016101 9.04035
0.16131076 0.17972244 4.5905137 9.5778856
0.72830516 0.079235233 4.5922322 8
1.0069522 0.17715985 4.675158 8.9706497
-13.882321 -0.89140689 5.0326357 2.375
-18.503231 -0.64035642 4.960578 4.8666668
-18.250185 -0.63004971 4.9342151 5.303432
-13.726564 -0.72869402 5.0869031 4.0625
-13.414908 -0.54320598 5.0643954 4.3125
-13.040885 -0.44458592 4.9843168 5.25
-12.426615 -0.42987996 4.9822063 7
-5.7639036 -0.63877761 5.0308352 4.9238095
-5.595438 -0.57391059 5.0532022 4.5
-3.7685606 -0.60508907 4.8225713 4.6428571
-2.479449 -0.62316263 5.0662813 6
-0.077405587 -0.47004038 4.8178167 3
0.13136794 -0.50905764 4.8912807 2.5
1.0888485 -0.59284133 4.9202714 4.1119976
1.2485284 -0.61038297 4.9937296 4.5
-18.505421 -0.25900099 4.9371991 6.7705879
-18.269739 -0.24331945 4.9376016 6.919507
-17.981998 -0.051543713 4.8652439 8
-13.252801 -0.31054679 5.1395755 6
-13.026774 -0.29861248 5.0929971 6.0999999
-12.661822 -0.19940318 5.0067625 6.9674501
-12.218763 -0.27540874 4.9979386 6.2333331
-11.901037 -0.080812782 5.0097265 7.5577502
-5.7734604 -0.24678618 5.0283098 6.6895766
-5.594945 -0.2279478 5.0657091 6.25
-3.7806833 -0.23202036 4.8281083 6.7857141
-3.2563522 -0.03708433 5.0489879 7
-2.6283922 -0.25269085 5.1330805 7
-2.2770658 -0.25418425 5.0680995 7
-0.13343734 -0.2455121 4.9673505 5.3000002
0.14543168 -0.17230125 4.8398266 6
1.0870546 -0.21590774 4.9115419 6.0234585
1.2403607 -0.27236405 4.9684596 6.6571426
-18.274805 0.1882913 4.9380431 8.402235
-12.547383 0.020778239 5.0650291 8.0973129
-12.202637 0.16796209 5.0031691 8.5200186
-11.747286 0.1638208 5.0085726 10.069432
-5.7696304 0.17014641 5.0204797 8.4434528
-3.779371 0.17473945 4.8381734 8.2376537
-2.7488842 0.11544859 5.1292858 8
-2.3702223 0.11186545 5.1946802 8
0.13242579 0.19995347 4.9635401 9.8650627
1.082057 0.18877289 4.9102197 9.1104317
-13.858145 -0.86705327 5.3746099 3.125
-13.280372 -0.87919199 5.5685897 6
-18.504812 -0.62663412 5.4418998 4.8888888
-18.309214 -0.67084539 5.4016023 5.1547618
-14.026609 -0.77995074 5.5770411 3
-13.726171 -0.73489052 5.4807096 2.7380955
-13.392618 -0.55725718 5.3306799 4.6666665
-12.997341 -0.41312033 5.4631968 6
-12.590542 -0.50082892 5.2918167 7
-10.52564 -0.52131289 5.3732653 0.89999998
-8.2626953 -0.65426886 5.570117 6
-5.769989 -0.61195159 5.4288907 4.789259
-5.3675842 -0.61524057 5.4097281 3.6666665
-5.1879106 -0.60274124 5.4520369 1
-3.6842215 -0.55135041 5.4191885 3.2142856
-1.6556168 -0.62871665 5.4856043 6
-0.17365657 -0.48728165 5.2032814 3
0.12649302 -0.54867613 5.3359232 2.1666667
1.1418817 -0.56589502 5.3696942 2.1043415
1.2729471 -0.61956584 5.4582696 4.0625
-18.473761 -0.32909292 5.3730021 6.9099584
-18.335546 -0.27677813 5.395752 6.8958325
-15.712724 -0.33962905 5.5886674 6
-12.976487 -0.24523312 5.3652196 6.416667
-12.58845 -0.064573929 5.3991303 7.6427855
-12.191068 -0.25193563 5.3504372 6.8333335
-11.908061 -0.087063834 5.4685411 7.390583
-10.611856 -0.2682302 5.4168468 4.6398144
-5.7919903 -0.24318013 5.415659 6.5145392
-5.3599548 -0.23154056 5.4272571 6.1458335
-5.1769924 -0.25967705 5.4458194 5
-3.6923425 -0.19281824 5.382091 5.7795916
-3.5607615 -0.24893272 5.578742 5.5
-1.6758833 -0.14242318 5.4676428 7
-0.17065673 -0.28351551 5.2053881 5
0.12372054 -0.15552026 5.2751789 6.25
1.119481 -0.25147772 5.3772497 5.6927366
1.2507584 -0.25698629 5.4300423 6.5
-36.171417 0.095284767 5.539093 8.1374998
-18.288383 0.15215637 5.4630408 8.5332499
-12.5 0.021691276 5.4340057 8.1950417
-12.187122 0.16305606 5.3346553 8.8974209
-11.751933 0.11364596 5.3639703 9.7703648
-10.546721 0.16669242 5.3190994 11.040305
-10.378321 0.1249049 5.4572477 10.151051
-6.0131674 0.13568807 5.5777493 8
-5.7710395 0.17413494 5.3883724 8.6142292
-5.3716254 0.19854869 5.4093184 9.1559334
-5.1665788 0.1857774 5.4461522 9.3571424
-4.5370865 0.049990423 5.5936351 8.5065002
-2.5426207 0.11267915 5.2102118 8
-0.12210162 0.015431423 5.3611202 8.0002499
0.15048751 0.12585893 5.2864485 9.1681547
-18.443859 -0.59392536 5.6968179 5.2708335
-18.21908 -0.61537963 5.8209743 5.256444
-17.986824 -0.65003991 5.8329449 6
-16.489038 -0.59341705 5.9838519 5.25
-15.659606 -0.63634813 5.8861151 4.0333333
-14.545756 -0.52250201 5.9722891 4
-14.007279 -0.72786146 5.9726501 5
-13.825208 -0.66968936 5.9377017 3.5481482
-13.446405 -0.54521346 5.9150586 4.8166666
-13.101366 -0.45602363 5.8594341 5
-9.2066774 -0.61638647 5.9092994 5
-8.9365759 -0.64278167 5.8764849 3.9401515
-8.5868702 -0.64644998 5.8481398 3.9259262
-8.2806921 -0.63567591 5.8451524 3.9802632
-7.9721146 -0.7046746 5.8270979 0
-7.2059216 -0.5916931 5.8580508 2.3333333
-7.0091629 -0.56646335 5.8569708 3.3343434
-6.6739879 -0.57904792 5.8398767 3.7430108
-6.0853329 -0.63997149 5.9364648 3.6666667
